x,y,z
19.162003,1.745399,-0.860451
2.147163,14.380286,-0.866522
-4.174366,2.358494,-0.21697
-2.889535,13.77525,-0.853897
16.194088,12.094577,0.011031
-5.175989,14.384481,-0.062961
-5.623686,13.199111,1.457811
20.740826,10.969799,-0.720838
5.826917,18.521492,1.34473
-4.40591,16.459328,-0.270634
-18.774506,1.742554,-1.609164
5.388644,20.213535,1.766943
18.393753,7.22104,-1.195632
-12.076685,5.464452,-1.056
5.41492,18.794979,-0.659775
19.23176,12.456512,-0.051146
0.822641,4.244479,-0.775254
12.306087,15.312333,-1.275654
17.873028,3.112176,-0.475
-11.854135,2.06014,-1.033851
15.253838,11.65267,-0.375349
-12.407198,-2.275827,-0.812227
-3.041811,11.632339,-0.431102
6.421524,1.78038,-0.711869
-11.882938,10.529285,0.993561
11.25001,0.190605,1.070661
5.084143,19.267622,-0.714561
-15.615569,-2.128268,1.893334
-3.715896,16.598785,0.770962
-3.44221,15.217558,-0.7099
10.085317,-0.195431,-0.699678
4.501085,12.55534,-0.59355
3.548939,19.796595,2.122581
20.244356,3.382493,-0.454519
-2.692605,6.240449,1.006837
-4.732118,11.75281,-0.205858
-4.442518,13.9665,-0.839905
3.869787,15.108833,-0.821761
3.259754,21.191637,-0.693101
16.968184,2.955044,1.508766
21.971958,1.514313,-1.024856
16.1465,12.062122,-0.134284
-2.797739,13.741583,-0.891613
-2.329578,13.772135,-0.866306
12.952462,0.786568,-0.679278
23.246824,11.942775,-1.522774
-8.600388,2.594696,-0.074609
-7.852657,11.087543,-0.882021
1.55951,14.073976,1.436525
9.475294,13.092772,-1.600068
-11.70656,3.946672,-1.127479
17.095707,1.492949,-1.059945
-9.191617,12.52855,1.899569
6.72846,20.781479,-1.326449
-11.33741,-0.005432,-0.270432
3.931585,15.938606,-0.83848
-12.793282,10.512604,-0.079359
16.519947,10.808181,0.987213
16.484894,1.235868,1.068837
19.450716,0.728994,1.124498
22.056381,1.939308,1.107148
3.589725,16.333239,-0.814768
11.343508,15.220873,-1.088017
-9.707188,9.537286,-0.61584
3.722803,14.733372,-0.829621
-9.623147,12.574994,2.106575
17.11891,5.495018,1.038455
-16.183773,10.702703,-0.425887
10.009432,21.553476,1.531227
-2.172875,12.674765,-0.203644
15.425526,11.837409,-0.119319
16.072453,14.292634,-1.451839
24.256254,3.33605,1.460752
-17.929441,-1.467299,1.034406
0.24182,-1.49187,-0.70056
-1.988122,13.302146,1.427808
-7.014964,11.175081,-0.39956
-6.736215,11.775613,-0.933097
9.264698,14.859648,2.093303
9.036699,15.101853,-0.506692
-1.7025,16.748173,-1.042903
-4.225101,15.156862,-0.809661
21.794643,10.366375,-0.901012
3.590227,14.788023,-0.813549
-20.593824,8.954508,0.466686
11.974562,16.383633,1.184319
11.927518,16.506783,1.180962
-18.816462,5.063806,0.891582
-13.632547,10.379738,-0.649934
-3.972754,9.234224,-0.792444
-10.971896,6.958646,0.605478
-4.757845,14.687563,-0.829468
4.92661,18.983139,-1.028444
-12.161119,6.378829,-1.474787
19.238203,6.341331,1.496075
22.048439,0.711052,1.530279
3.407948,14.666907,-0.8087
15.8671,12.442648,-0.169895
3.299394,19.586956,-0.717174
-16.016569,10.07678,-0.220505
11.349423,15.619581,-1.162591
-9.067921,14.357882,-0.766812
9.67577,0.405721,2.108647
23.447075,10.346242,0.907815
-13.226637,12.155035,2.04834
21.484385,8.290538,1.133092
18.261734,14.904088,2.117194
-1.886227,13.905016,-1.392917
19.661549,1.108411,-0.793168
20.171335,11.838783,-0.946474
-14.569807,-4.192018,-0.832758
-18.829529,8.859289,-0.872766
17.861628,11.431889,-0.87279
-8.318526,-1.239747,-1.628178
-4.118428,11.955215,0.015434
-18.085741,9.908545,0.46792
-4.445353,2.145276,-0.343337
-2.907102,14.20023,-0.862384
-17.581432,-5.447575,1.187711
-17.726524,10.293806,-0.877931
5.987396,18.042404,1.431202
22.582689,10.004691,1.413906
-4.580389,15.018496,-0.84253
22.389929,3.239726,1.451403
-14.404758,12.55692,-1.480927
11.624909,13.72809,1.564605
-1.7324,1.601931,-1.616736
6.858492,18.96184,-0.638316
9.310818,15.096716,1.040907
17.462864,1.418185,-0.845648
-7.322493,12.139783,1.365503
20.930708,10.530494,-1.066516
-0.01508,16.983633,-1.134682
-8.368086,12.759424,-1.618091
-7.550163,14.761322,-0.993977
1.847298,-0.982624,-0.708455
-11.511766,1.586445,0.139378
-4.143274,2.366622,0.48093
-20.0812,4.478804,-1.207642
-4.179483,2.345557,-0.01591
-14.351502,-3.086383,-0.868269
-4.975331,14.27068,-1.703333
16.912035,1.559997,-0.866067
8.625859,21.243429,1.138595
-20.86689,4.541239,1.342717
5.40448,16.688377,-0.834231
3.453629,14.403957,1.344053
-20.238646,0.851953,-1.09295
17.38669,1.650964,-1.204991
8.941662,15.16509,-0.558059
23.058979,1.666553,-1.29865
3.357359,16.286989,-0.400342
20.98097,10.844636,1.064899
7.841311,20.952532,0.502961
0.167994,0.115385,1.414042
-17.167826,10.017271,-0.215705
0.769596,0.448836,-0.889562
-2.122089,12.950867,-0.406187
20.020578,12.548206,0.197469
-4.068359,15.239163,-0.884597
12.383521,13.638833,-1.384344
-17.974211,9.852475,2.073509
12.223394,14.637872,1.013471
-10.683902,5.227013,0.964701
17.287804,1.885544,-0.887834
11.972435,2.46658,-0.736626
-4.243232,10.295554,-0.318734
-8.772623,12.720007,-1.624067
21.964441,8.483438,-0.679688
5.052016,19.845673,-0.809838
-3.542141,1.414556,0.502055
-4.506512,16.4422,-0.151532
-3.35075,16.364845,-0.223496
-6.411366,16.215841,-0.956429
-1.496458,14.289179,-0.738322
7.624938,13.183378,1.905092
11.653461,0.127649,-0.737723
3.667929,14.669834,-0.86273
19.305298,1.050897,-1.615226
19.645489,11.054951,-1.201239
-7.998775,12.730275,1.294402
4.018267,14.645808,1.021701
4.458009,22.404373,1.418602
-4.543143,14.514259,-0.720509
-4.773698,14.705364,-0.043077
10.511959,-0.263331,-0.68602
-9.309114,6.222405,-1.615451
-18.646584,8.934544,-0.091986
-5.32577,9.893327,0.888903
-12.164903,7.306259,0.485751
21.060059,10.949716,0.973448
-6.486013,15.124187,1.377736
-1.602562,14.260022,-0.730366
-8.158979,12.967576,-1.445067
5.536649,21.452419,-0.242466
5.396201,18.81093,-0.238323
6.527254,19.731844,-0.640016
-2.69076,-1.822128,-1.024122
19.237129,12.4732,0.382475
-17.459229,-1.008247,-1.548436
11.960301,16.255314,-0.623851
19.660187,12.520287,-0.13912
5.239616,21.910461,-0.883019
16.027033,12.208277,-0.040157
17.529602,7.873732,-0.749921
-16.175701,10.70181,-0.57084
-18.762672,7.312941,1.960807
22.376896,0.897644,-0.400284
13.773777,1.039907,1.072527
6.531129,19.812307,-0.652317
19.221506,1.364368,-0.847338
5.021111,20.742693,-0.698624
3.27747,22.252127,1.421477
10.976188,0.850683,1.063189
-4.160824,13.539697,-0.36569
-6.214268,11.222782,0.498679
-19.713488,1.326984,0.734954
-4.498071,16.452814,0.182952
-4.204839,14.329026,-0.869158
-4.173971,14.812116,-0.558073
12.702909,0.808853,1.279147
-15.054813,-3.176836,-0.878889
-4.264012,13.617688,-0.88447
10.787104,0.658114,-0.675433
-3.42055,16.823559,-0.880192
19.691105,1.811332,-1.07222
-2.337006,13.063759,-0.282523
-20.773899,7.687915,-1.031105
5.623589,17.883297,1.488204
-18.282034,16.986725,1.217667
-4.450372,11.89187,-0.128028
17.88135,3.093527,-0.255286
9.492684,15.38354,1.058764
-7.929028,11.090892,0.269219
-20.609306,7.322479,-1.151925
17.509138,1.216902,-0.748694
11.440759,0.69393,-0.924612
23.797012,8.142933,1.108266
5.191164,15.861801,1.450208
21.147812,11.070937,1.14401
22.404438,-0.119842,-0.365559
3.174803,2.232083,-0.707766
-5.997651,10.177187,-1.076653
10.268246,0.434095,-0.686584
-12.064796,4.785421,-1.713452
-11.685697,2.967612,-1.209497
7.989709,20.249786,-1.47783
-9.14354,5.448975,-1.026537
10.080092,-1.722212,2.131509
-3.92595,15.238961,-0.868
11.253179,-0.758699,2.174323
8.099809,15.582792,2.094246
-20.722406,9.292966,-1.272482
11.831981,13.360261,1.598677
-13.431864,10.400064,0.128101
-8.641493,2.724099,-0.684689
6.377726,16.615015,1.165178
19.12895,1.883154,0.817247
-3.870559,-3.012839,1.488523
16.11981,4.154782,-1.000943
17.086533,2.95071,1.214378
18.202438,10.905831,0.408617
4.17097,15.270924,2.13139
-4.076452,11.979055,0.266422
6.665442,12.080254,-1.712472
16.810011,-1.556626,1.166355
-4.475451,15.36518,-0.019062
15.612759,-1.058366,-1.297605
-5.084162,2.290686,-1.022519
-11.651903,14.210281,1.029169
-3.379677,14.11137,-0.743631
1.588232,14.720466,-0.692109
18.673731,10.501808,-0.886532
-9.171926,-1.934915,-0.615265
24.450506,1.821533,0.522596
-23.16028,-4.524859,1.166418
-5.708303,13.262496,1.420262
19.026943,9.953873,-1.376269
1.961039,14.52924,1.374994
-18.024397,-2.840638,-1.13727
-5.419638,16.409256,0.040966
10.962785,0.212024,-0.550957
-5.496351,10.169811,-0.322323
17.690758,15.833889,-1.213111
8.207855,19.519386,-0.700426
5.108396,23.69985,0.466431
5.198158,0.268477,1.806083
-20.585737,-3.32555,0.995878
21.850355,6.100214,0.427784
15.418641,12.044611,1.87635
9.064459,17.848587,1.181871
11.10267,1.07329,1.165494
2.927238,17.282568,-0.935625
-19.573889,-2.2662,2.109661
-5.029534,17.036385,0.664696
5.387076,18.377333,-0.704599
4.012262,0.718007,1.365133
3.606887,18.70739,-0.859496
-20.526604,5.649116,-0.862665
-0.943731,14.409809,1.397187
18.976227,5.731332,0.519952
4.725675,23.611633,0.779761
-19.659672,1.128208,-0.036215
19.342798,3.264637,-0.063555
9.073936,17.484394,-0.711021
-11.589703,-4.765739,1.907748
-9.618235,-1.558625,-1.499398
17.860321,3.827684,-1.30176
23.534992,1.505288,-1.610556
-19.69968,1.484324,-0.822277
-19.867744,3.06251,-1.617764
23.27499,12.191825,1.151849
-14.192401,16.305162,1.371371
-4.958409,14.337051,-0.985462
-9.229594,14.095776,2.128493
-4.456556,16.479662,0.305519
5.521904,20.95756,-0.714517
-4.703259,11.796764,-1.150972
-4.486707,14.326311,1.408681
18.464226,5.674997,-1.1001
19.943325,1.650907,-0.834887
15.190822,-0.019684,2.114502
0.878884,1.909075,0.087718
19.0982,11.31096,0.231701
4.764931,19.182943,-0.992054
-18.707895,7.851071,-1.009428
-18.697252,7.772533,-0.119173
20.653433,3.42283,-0.379191
-12.565123,10.49156,-0.492351
-2.715676,-1.579405,-0.696253
-4.373938,2.341818,-0.184974
-12.545753,10.501274,0.183721
-20.181208,10.045008,-0.722282
16.152693,0.598482,-1.298946
-1.220052,13.459149,-1.635607
6.351044,21.516607,-0.92721
16.146692,12.352986,-0.09901
-9.804761,12.54049,2.063695
5.792686,14.82362,-0.83741
4.435893,21.493189,1.616938
-1.177783,-1.381167,-1.157256
-9.861677,-0.588037,1.591517
-11.267449,11.144876,1.526288
8.266373,16.585827,-1.642718
18.207773,15.212293,1.88999
-10.997964,15.115458,-0.690842
5.494183,16.728985,-0.393984
-4.290641,16.811525,-0.907829
7.097411,-1.796003,1.427668
-16.009684,-0.810003,-0.261444
-3.963403,11.976582,-0.538589
18.841623,5.902445,1.549321
9.081727,13.085987,-0.295799
3.174124,15.475179,-0.8396
16.317089,11.598038,1.108719
3.922827,15.522562,1.085594
-6.065931,14.0123,-1.607376
-5.004641,10.470963,0.360627
-0.177399,13.904996,1.379197
-9.072083,4.11357,-0.273033
-7.77252,13.015406,-0.755672
-12.403163,-1.905075,1.081974
-3.644179,14.436001,-0.848691
-7.167321,15.002898,1.417958
18.716799,3.193619,0.850666
4.791408,1.941717,1.910221
17.850218,-0.535732,-0.842904
6.469139,15.958076,-1.706009
-8.225304,12.78165,-1.578258
17.486752,1.274258,-0.779922
-19.735487,11.644682,-0.826429
-5.588803,10.189256,-0.596399
19.352308,1.531697,-1.262999
-2.943075,12.940195,-0.620735
-19.650599,0.115215,-1.301944
-3.593257,12.799293,-0.769782
17.031378,11.816309,-0.855073
7.012272,1.942962,1.99906
-6.372475,14.060707,1.451888
-15.278615,-2.368884,1.054361
21.568672,7.352118,1.104753
-15.576085,10.171284,-0.453004
12.172104,14.545192,1.067816
-3.298448,1.461606,0.501784
18.40308,9.409765,-0.789994
7.808745,19.344242,-0.994979
3.493392,14.778063,-0.823494
-20.299438,-4.086913,-0.814794
-8.053465,11.070251,0.829691
-13.186144,11.183607,-0.460145
16.171785,13.329297,-1.593387
21.404612,7.130638,1.076122
-11.906408,4.601184,-1.555431
17.211546,8.52689,2.156289
-11.278054,-4.220112,-0.817075
10.671711,16.799824,1.458965
19.371948,3.285609,0.835207
-3.706917,2.250653,0.423741
5.69931,16.754078,-0.593367
-3.293893,13.694674,-1.38548
18.956903,8.466125,-0.932602
3.36199,15.542939,-0.63156
6.346234,2.169476,-1.485562
20.779575,-2.296329,1.689809
-7.626416,14.467832,-1.531644
-4.048721,-1.11521,1.445875
19.343628,5.800847,0.421311
8.37679,17.293272,-0.721955
-5.358025,16.40671,-0.193723
18.106749,12.247149,-0.894049
1.032724,17.085407,0.261733
18.582514,14.865971,-1.313811
19.827982,10.952704,-0.611879
22.668894,1.594766,-1.395167
6.681804,18.543257,-1.369144
-3.805017,16.871283,-0.831331
7.026606,17.358944,2.117153
-17.399952,-2.598674,2.094373
-5.220226,1.225332,-0.752575
-12.502426,-2.423665,1.065954
6.352263,18.529802,1.438762
7.278584,21.764975,1.707842
-8.932193,2.810411,0.996958
-11.317161,10.551758,1.025476
6.024376,21.086323,0.9848
-8.861439,12.768946,-0.813813
-8.507595,12.329314,1.0699
3.870364,0.02596,1.434633
22.585749,-0.726503,-0.425877
3.933022,12.451747,0.085763
7.384587,16.553371,2.135101
-10.430869,12.93756,-1.359922
-4.727086,11.795734,-0.571407
15.354121,11.978168,-0.703138
17.770378,5.742654,-0.932737
-5.686748,10.255692,0.27162
8.988747,13.028186,-0.794532
11.018967,0.693243,1.055161
-7.904279,12.952351,-1.62448
0.757982,1.896807,-0.417789
-4.146446,16.506287,-1.133662
-6.559249,14.686992,1.405451
-4.747886,2.295243,0.481269
19.341768,5.771923,0.468941
8.76722,24.061413,1.164533
14.970263,11.991354,-0.090623
-20.658625,8.779274,0.473612
-14.495547,-2.992424,-0.857885
-4.187857,2.34385,0.040143
11.492802,-1.496463,-0.626223
-3.797899,11.984388,0.068467
-2.198645,-0.702209,1.409649
16.331358,12.124694,1.634633
-9.755568,14.51726,2.159833
7.640474,-1.113962,-1.265129
11.805887,16.367933,-0.685165
-11.860422,-2.726895,1.928026
-14.365251,-2.372062,-0.904227
-21.115204,4.322026,-0.861539
18.665451,4.588968,1.367917
-17.943197,11.87775,-0.876467
11.799388,13.297689,1.610264
-2.566973,13.1057,0.204173
11.318507,-0.537074,2.226893
4.031713,12.526525,-1.292979
-20.219116,-1.501189,-1.539723
-4.423046,10.251502,0.477989
-10.7541,5.140033,0.907623
-6.751383,11.46017,1.424818
-12.051884,8.351945,-1.427736
-8.804071,14.540583,1.049754
-8.159214,14.628605,-0.846945
22.924482,2.38346,-0.581747
2.49804,14.436812,-0.810438
4.830046,18.072979,-1.419608
20.331827,3.383563,-0.672984
6.561296,20.272963,-1.259639
0.395723,-2.162854,-1.416232
13.569164,-1.677194,1.918205
-2.358942,11.705324,-0.430253
-11.636629,3.975276,-1.377054
6.163175,19.899015,1.032972
10.73913,15.699409,1.209043
2.172894,-1.235427,-0.708193
-2.258953,7.222615,1.026504
-4.422427,16.510023,0.313118
-25.535702,6.858474,-1.233982
22.809305,10.563313,1.46103
-4.570945,2.528148,-0.1938
13.956826,-0.785728,1.250954
-5.389586,16.342728,-0.163701
-20.162634,2.406464,1.487435
-2.529974,13.762943,-0.881099
-9.854321,10.716158,1.044088
-18.399445,-1.274412,2.046571
-4.042445,13.969979,-0.716531
6.619332,15.40116,2.107273
-3.351236,13.276713,1.446597
-1.33832,13.89537,-0.875031
-0.837628,14.267991,1.441622
-4.892336,14.237288,-1.598881
19.375944,5.773076,0.04283
9.804021,13.530179,1.551541
11.559596,0.260975,2.032583
22.995382,8.969339,1.426438
6.571913,21.14056,-1.447845
-8.416936,11.021358,0.240003
-12.415705,-3.226836,1.058108
-4.123552,14.180515,-0.813483
-13.462613,-2.412002,2.12198
5.148574,20.836218,-0.704027
-22.143442,5.94705,1.107237
-3.158037,16.311234,-1.275322
19.393333,-0.192315,1.06193
-2.826885,16.326309,-0.001239
-12.919678,-3.363751,2.077287
5.138577,15.262903,1.245818
-8.219908,13.252743,-0.821165
11.459337,17.273867,-0.878341
-7.560914,18.119764,1.423537
17.615902,1.067797,-1.544679
-22.139229,5.730224,1.011617
4.75579,2.29225,1.91495
8.128444,20.746809,-1.628354
-12.961636,-3.258134,-0.864148
-5.166369,16.898783,1.445565
21.795816,3.037224,1.544843
-4.484663,15.587078,-1.067817
-18.562635,6.586612,1.301319
8.602671,13.057722,-0.939194
8.734661,18.172812,-0.698442
5.757624,20.262199,-0.589464
14.91889,15.364782,-1.217238
-4.461583,16.504515,0.318397
-5.530165,-1.142614,-1.247239
2.135705,2.056147,-0.35327
2.344652,13.170855,1.427233
-4.522178,14.610646,-0.834786
-15.308518,-2.622844,-0.861369
-2.941663,16.381966,-0.380456
5.332106,17.225016,-0.875974
17.715166,5.996538,-0.926955
6.571,19.721909,-0.674938
5.68188,22.0149,-0.530714
-4.372994,13.868774,-0.877605
-5.251222,16.689701,1.417905
22.206335,2.798725,-0.785708
17.411346,3.050885,0.652576
-11.643974,2.569794,0.203751
5.657417,20.73214,-0.677121
5.106923,19.644146,-0.694327
6.195895,16.944328,-0.346938
-17.73502,-0.523447,0.442921
3.415502,20.35973,0.983247
12.047493,13.527214,-0.955172
-8.777372,12.778457,-0.854381
15.495947,6.496748,-0.142673
13.905869,1.177733,1.105303
-10.842131,15.039469,-0.709692
-5.707201,15.978542,-1.648971
-8.214816,11.060419,-0.646
-2.861009,14.652452,-0.827773
20.543182,1.37001,-0.820282
-9.061651,10.942883,-0.43622
8.822001,19.493881,1.062168
23.227938,12.320436,1.416258
-4.342561,14.307297,-0.842359
1.095774,-3.645613,1.509803
8.687016,-2.772054,-0.670874
3.912035,15.543244,-0.822403
16.636173,16.259983,-0.647129
-11.621655,-1.891245,-0.951194
-20.252823,11.811886,-0.844114
19.360332,1.626011,1.088886
15.942381,12.772974,-0.0371
4.035455,14.590926,-0.871601
17.082266,6.097905,1.262545
-1.875,13.117356,-0.202019
9.42103,17.221243,-0.575266
-11.005409,10.641805,-1.648429
11.133778,2.008923,1.983299
14.962101,10.934864,0.25714
-19.544762,-0.072801,-0.806904
21.845316,10.882847,-0.92442
20.09387,3.375843,-0.689621
-20.214462,13.106936,-0.845597
18.96427,12.428446,-0.120952
-18.170925,-1.346071,1.958977
-6.204984,10.196203,-0.977517
-4.60304,13.320018,-1.596519
-8.746607,1.141355,-0.222847
4.312037,12.615523,-0.026448
3.51093,17.796291,1.127598
21.497061,7.929867,1.05328
15.335812,11.140799,-0.418041
-20.609064,1.801308,1.343485
-11.978488,-0.291143,-0.97706
-7.570756,-1.433301,-1.554601
5.322613,12.680969,0.613229
21.098671,12.699489,0.464361
20.175783,0.556142,-0.752079
17.083447,1.882115,-1.213197
18.843069,9.242835,1.03295
-4.056663,11.969239,-0.140714
7.411368,18.977743,0.258479
-2.156651,1.581099,1.416474
11.636909,-1.056985,-1.100618
-4.275269,13.639584,-0.282212
19.164913,0.788953,-1.048362
3.995203,12.507526,0.297929
-4.486297,13.030247,-0.125149
-14.399858,-2.268611,-0.881127
-16.555632,-0.796571,-1.377229
-3.484337,17.682585,-1.515345
-7.036832,13.744761,1.702885
-17.421827,10.945894,2.117356
-9.620659,-1.938709,1.032589
8.383429,17.68644,-0.738546
-4.142838,13.314355,-1.571272
-3.715998,13.700435,-0.814491
15.888748,11.675264,0.062532
-16.258341,-3.539952,-1.050327
-11.348953,-0.291212,-0.707053
-3.806698,12.020993,-0.650986
9.352943,13.046247,0.043153
-3.663743,16.597687,-0.620344
8.349387,19.974298,-0.662508
1.637721,14.162091,-0.382418
14.313562,0.942118,-0.702023
-21.583178,2.114954,1.119383
9.27107,15.897281,1.160871
1.927337,0.201402,-1.626287
6.499689,20.807291,-0.684732
4.054368,13.998165,0.981207
15.395832,11.844182,-1.227195
8.673102,14.959362,-0.675293
-2.047451,14.291593,-0.870168
8.158115,20.451315,-1.298637
-19.452383,3.450763,1.028809
6.794145,18.915091,-0.693521
-5.089064,10.318929,0.245259
11.071125,15.935555,-1.293835
15.963604,12.120534,-0.437893
-19.049755,1.861033,1.828596
-20.431242,7.835739,0.137076
-9.3378,6.342026,-0.073695
-1.77252,18.274006,1.371586
-14.789967,-5.250044,1.064246
-2.219825,-1.88614,-1.41777
-4.380669,10.309211,0.254016
-12.638344,-1.143731,0.979259
-0.118795,1.599826,-0.641156
-15.102161,13.753057,-1.313551
16.084473,3.749133,-0.83795
19.29365,12.470655,-0.477988
-12.035719,-2.427955,-0.858634
14.093617,1.147362,-0.70187
-3.579912,2.682064,-0.112138
-1.018939,16.784746,0.015378
3.188762,18.845608,-0.810682
-1.316102,-1.323852,-0.793143
-14.197821,11.995095,1.059171
-11.769495,-3.2383,1.91812
-8.90032,10.975199,0.373195
19.913301,9.688671,1.218356
15.53175,6.199284,-1.529004
-11.531208,13.797836,-0.606063
-11.826428,2.04033,-0.510752
-4.85253,13.741271,-0.613584
9.955254,2.215724,-0.084836
-17.481495,-5.943457,0.995946
-9.83655,-1.488627,1.036134
-12.127215,5.44744,0.301203
-18.70739,8.858232,0.306082
11.384916,-0.110497,-0.689226
-0.501092,4.730062,-1.034293
19.48901,-0.785401,1.04738
-4.286353,6.156859,0.971271
6.793684,14.645947,1.118696
-16.259235,11.591088,-1.638273
21.787073,9.133853,-0.660067
11.800672,13.310024,1.574823
22.40308,1.259468,-0.5938
-20.115217,5.274395,-1.602883
1.038635,14.496036,-0.575044
-4.87653,10.968722,0.092325
-16.058187,-0.80415,-0.648822
20.253649,1.510835,-0.813427
-7.926729,11.090372,-0.334861
16.927221,7.730078,1.223942
5.076737,19.77549,-0.931373
-4.762813,13.915223,-0.72696
17.119286,5.498848,0.382639
-14.493732,-3.017777,-0.852148
13.466373,-0.699956,1.902051
-3.852637,13.869702,1.466332
22.143051,2.517066,1.009103
19.409945,0.408046,2.076597
-17.267769,11.861547,-0.846441
-1.232237,8.529079,-1.169512
23.47777,3.440045,-0.724232
-3.29746,13.618608,1.411171
-7.737268,12.752325,-1.387368
17.815985,2.959892,-0.819616
6.765566,13.987904,1.185457
16.505529,14.639942,0.119863
-3.359069,13.922836,1.384211
-21.204155,12.423166,1.996204
-18.923031,9.757552,-0.639415
-2.765168,16.37965,-0.834409
-3.498049,13.828569,-0.829165
2.338273,17.12672,1.354299
-17.587101,-1.032307,-0.116492
5.005042,20.482098,-1.255764
6.061193,19.693052,-0.359497
-0.797614,12.543515,1.378691
11.749454,13.357521,0.128258
-7.888311,11.767361,1.765488
0.819801,12.072317,-0.457802
1.26772,14.252998,-0.809154
-8.306196,16.011963,-0.853173
-2.367303,15.368977,-0.853714
-4.069991,11.978479,-0.160052
5.271804,18.934847,2.135185
16.816017,-0.322765,1.063199
-3.666734,16.766348,-0.88879
-1.803813,12.940255,0.094103
-4.50631,16.502722,0.616224
-14.152803,13.052448,1.036985
-5.309059,2.249942,-0.072923
-9.61705,10.886779,-0.100508
-4.597074,13.582068,1.399403
3.483442,18.532465,1.184508
21.692404,9.578361,1.406307
20.256653,1.71496,-0.853325
5.6506,15.696785,-0.698349
-3.365644,15.072521,-0.827486
20.02059,1.201154,-0.845763
20.372105,8.004152,-1.385484
3.692575,17.506838,-0.864382
-4.417024,15.21427,-1.561389
-20.825993,7.640254,0.311321
-2.937354,16.507011,0.296903
-19.745325,1.477331,0.713821
3.194741,1.673038,-1.417147
-20.171204,10.358694,-1.062478
14.270029,0.593847,-0.750839
4.177574,17.637243,1.051342
-11.311158,13.407614,-0.724197
18.16678,1.406563,1.179356
-1.081725,14.063077,-0.820781
-16.912445,11.716988,1.090488
-18.322243,3.780087,-0.508734
-1.349369,14.674558,1.410923
-12.769916,-0.421513,-1.601451
-12.36354,-2.2583,1.08404
5.703093,14.536966,-0.922206
-3.277106,14.616015,-0.613091
-4.882428,10.962069,-0.356435
-9.531859,-2.207026,-1.360686
-16.902309,11.807875,1.161307
-17.989815,12.820391,-1.45263
-3.713889,14.434719,-0.857156
-2.174456,-1.011861,1.435961
7.178773,15.729122,-0.67349
-4.193913,10.30037,-0.114233
-20.164387,10.360557,-0.7469
-12.674618,10.4529,2.085522
-4.47886,16.733784,0.187062
17.390766,2.888885,-1.036942
-8.217226,11.058167,-0.28699
-4.321011,2.321437,-0.678558
1.134093,14.547335,-0.545349
-4.705632,13.637827,1.396952
4.69872,20.973043,1.494414
21.922291,6.093288,-0.588546
-6.938643,13.997967,-0.832905
-0.251874,-2.586528,-0.41185
21.159882,12.711697,-1.118257
21.045849,10.866989,1.035313
-4.141681,11.941525,-0.186686
-3.745296,2.511173,0.442736
17.43453,3.014675,-1.06272
-2.259049,13.709883,-1.03192
-16.786097,12.333325,-0.7694
-4.988779,3.064491,0.290578
5.385664,16.806927,-0.839288
0.177892,-1.455354,-0.690966
-4.606423,9.718682,1.1066
9.087571,13.100296,-0.634374
21.753004,9.649961,-0.920651
22.205015,1.90002,0.947291
-10.756829,-1.905617,1.256037
-8.716933,10.984088,0.066698
-19.784098,6.173576,1.077428
-9.860977,-0.586249,1.258603
12.315063,14.566143,1.060706
-4.444208,1.060407,-0.078864
14.818295,12.219138,0.276974
-7.30584,15.094214,-1.552351
12.627408,0.98771,1.20681
18.47724,5.679862,-1.220591
-4.396417,16.479877,0.326242
19.303486,0.276403,-0.868696
-7.577676,11.14743,-0.5286
17.40019,3.075905,-1.229475
-0.29523,-1.82267,-0.670697
-9.602479,10.886058,0.012358
6.364069,19.877621,-0.464256
-2.301514,14.43614,-0.769376
6.270984,22.05393,1.943821
16.52401,14.650398,0.807369
-5.267901,10.250392,-0.601066
0.04559,-1.986803,-0.647385
-3.97334,11.978972,-0.38355
-13.687309,12.56694,-0.716958
21.586739,10.486852,1.370489
3.5614,17.473545,1.040495
17.430239,8.372794,1.351249
2.870763,22.85054,1.413686
22.1693,10.707854,-0.435929
17.746334,0.764274,-1.11041
-16.946516,10.581083,0.18961
-3.363287,14.011838,-0.733101
-17.528109,-2.090961,-1.641014
-15.009153,18.102585,-0.661425
11.622772,0.389454,-1.382175
8.721174,-1.840274,1.084435
-6.18927,9.850411,0.606073
22.881817,-1.641458,-0.168404
12.614628,15.923353,2.106934
4.308195,12.573565,0.171613
20.172329,7.738931,1.249085
20.356085,1.466027,1.719069
8.551844,18.941496,-0.69503
9.501607,15.480889,1.104977
-6.417697,11.342943,-1.592206
-4.519165,11.868422,0.015354
-17.559286,-1.009898,0.282197
16.076124,2.595927,-1.651886
-3.314533,16.306431,-1.174902
-5.984997,10.216495,-1.108112
-4.359632,10.286381,-0.53118
13.451233,-0.251374,1.93473
-5.029991,16.437368,0.771865
-11.25831,11.170105,1.712271
19.238823,1.235561,1.080893
-11.757947,3.86126,-0.755275
-6.32802,13.936585,1.40851
15.750566,4.388856,-0.102915
-14.072382,12.286523,-1.641583
-17.920166,-4.227125,1.239857
-4.206049,13.658344,-1.036616
7.559041,2.041706,2.065016
2.165938,5.364127,-1.245423
16.274151,13.835654,-1.320641
7.11828,21.020296,-1.659016
-15.270373,-2.094326,1.013121
11.173142,0.610299,1.151002
1.25153,2.709471,-1.53553
4.31872,12.590539,-1.315439
-11.467745,10.574799,0.994525
-18.479549,5.863989,-1.552549
-4.916336,10.269009,0.380829
4.14741,12.55707,-0.253388
-0.763115,5.890641,-1.172899
-21.643396,1.988887,1.286025
5.964852,17.889704,1.494197
-9.702396,-0.970028,1.128486
19.13405,6.764235,1.043006
17.440094,14.745012,1.648474
19.609207,11.268858,-1.424218
4.975558,23.676102,-1.630017
-4.708822,13.486351,-0.874313
-12.244863,-2.618116,-0.864798
-4.384304,2.289065,-0.291892
17.886667,3.100075,0.669621
-11.419914,10.622348,2.058858
-2.89776,7.252387,-1.184289
12.018903,15.832437,-0.802227
13.699312,2.204898,1.253089
1.627956,13.970333,-0.790599
10.193863,0.383243,-0.670213
-5.840555,10.166322,0.404905
-11.05942,14.078839,2.128829
2.086593,-1.725539,-0.692957
15.813618,3.755892,-0.074231
-2.694339,11.615252,1.433785
5.937449,19.788746,-0.295289
-3.82059,2.245454,-0.045522
-20.459436,8.05371,-0.381789
2.189192,6.182599,-1.281501
7.279681,14.555914,2.006912
3.837612,14.338191,-0.882913
17.104816,1.3616,-0.713908
-7.481821,11.114443,-0.855316
5.785865,21.936934,-0.631471
6.030017,1.282869,-0.649364
3.717179,15.942008,-0.843965
20.484428,1.734687,-0.823982
-14.181234,10.332644,-0.767447
-3.840057,14.009695,-0.166415
-11.785832,-5.562061,-0.63805
15.053724,11.390693,-0.449691
14.130083,0.117502,-0.649318
-1.195109,13.516692,-1.207532
20.541611,1.548829,-0.803404
19.354116,-0.683658,-0.709806
1.732214,-0.358409,1.396472
10.79974,14.08556,-0.022315
22.792492,2.971687,-0.661072
-11.989059,-5.707164,2.371403
13.212666,1.080277,-0.733235
-22.356974,3.975141,-0.884943
-5.077939,2.282903,-0.677326
-20.86344,4.511722,-0.876718
22.672186,2.743413,-0.709022
-9.550122,8.639886,-0.630408
-11.362032,0.797732,-0.531226
-18.265665,-1.227535,1.177525
-4.558666,16.491863,0.758148
16.342579,1.799016,1.098114
21.411982,9.805802,-0.712836
-6.026139,8.46434,0.485797
-1.22586,-1.371823,-1.097933
-19.945234,3.645456,-1.632927
19.053413,9.959801,-1.01721
-3.327137,6.788902,-0.863419
4.913392,16.19179,1.396617
5.053039,19.899384,-0.823702
-1.348078,13.241691,-1.119701
-7.398663,13.136306,-1.190816
-3.919568,13.884171,-0.857228
-2.050038,3.77468,-0.793587
-3.553186,13.72323,-0.825537
19.879145,0.156763,-0.671949
-4.876183,10.264992,0.512865
-3.365,14.237236,1.442327
23.316145,11.47324,0.611024
0.289224,13.791615,1.407845
-7.298409,13.234846,-0.891514
-3.641166,16.589344,-0.84959
-16.941317,11.854923,-0.773403
-1.888939,13.901209,-1.436557
5.684714,20.103115,-0.700262
14.043953,1.006052,-0.569793
14.743426,15.788256,-0.99335
-8.939322,10.94415,-0.314858
-4.578286,10.368125,0.127641
17.189144,9.886606,-0.950081
-10.862555,13.425018,-1.558741
-4.085724,11.962739,-0.581451
-15.838143,-3.035021,-0.8467
20.372324,9.742699,-0.877239
23.29438,11.552655,-0.231245
3.106486,17.685038,-1.461405
-2.102001,14.800659,1.460413
23.370871,11.030577,0.062193
20.069777,3.404954,2.173005
-9.032591,3.859238,0.440925
22.012566,11.820074,1.424979
-4.718398,16.419033,0.782935
-7.202328,11.471256,-0.89373
2.913122,12.364627,1.358208
5.068293,12.615271,-1.517098
-9.771629,10.930346,-1.402952
-9.769667,10.301987,-1.593721
6.903791,23.939014,-0.381919
-20.438129,9.104196,2.200434
15.84543,10.180755,1.169996
-7.28652,12.190372,1.351822
5.524591,0.647412,1.042098
-4.37668,13.769114,1.463024
8.27178,19.099586,-0.696676
-8.239408,10.985668,0.747015
16.298996,2.102059,1.105405
6.058112,21.380272,-0.722303
-5.290668,1.82166,-0.980737
-6.314916,13.613695,1.441207
21.264542,10.037143,1.155211
5.625577,20.110569,-0.727592
14.169383,13.635458,-0.451373
-4.95711,11.238091,0.493958
19.171894,2.001188,1.097991
-3.774796,14.825562,-0.840442
-15.046791,13.708885,-1.461644
-7.117016,11.183312,-1.122562
-5.059143,3.097271,0.087745
-2.217454,11.962024,-1.611402
-4.491705,14.652628,-0.777264
-8.453959,12.783018,1.383658
8.986638,16.137405,0.77211
-3.198392,15.302514,-0.82847
-8.606571,13.055801,-0.752201
22.625946,3.656358,1.421566
-16.930149,11.836991,1.080785
-12.203263,8.838676,-0.914156
18.761461,10.857559,-0.919742
6.62563,16.609007,2.419183
-14.639339,12.564363,-0.629955
22.360176,2.436619,0.893682
20.851028,8.258982,-1.049968
-1.832599,-4.151279,1.424572
5.429013,2.590274,-1.811931
-16.109673,-0.830575,0.05821
16.748276,0.897536,-0.673057
18.104486,0.389357,1.671899
8.249576,18.570322,-1.527363
-16.102652,-2.362576,1.180641
17.26272,1.41966,-0.817614
12.125317,2.485746,-0.177851
14.723909,0.387245,-0.714104
19.370941,1.253811,1.794778
-8.362409,0.382286,-0.835221
8.429832,16.383841,-0.637413
-3.724969,16.544415,0.000748
-11.314754,10.483853,1.070751
-7.578716,11.129372,-0.961147
7.841125,21.588949,-0.990522
20.588617,1.474042,-0.827963
16.889893,2.932809,1.050182
16.471449,11.84407,-0.874878
3.26555,16.23848,-0.537561
0.059584,9.643623,-0.85149
-4.558942,14.499824,-0.815213
-3.829298,15.17617,1.530907
21.886292,7.937047,1.41384
-17.279646,-0.936459,-1.315156
-5.253001,10.2285,0.444972
9.762868,14.499466,-0.837366
-5.616942,10.258074,-1.297349
-2.937025,14.39848,-0.887136
19.241236,2.474909,1.164578
16.336596,12.133459,0.351293
10.118746,13.480157,1.927303
-3.056013,17.007153,-0.315842
-7.800872,13.102951,-0.490627
-8.473498,0.368377,1.971531
16.249327,12.051034,-0.991635
-3.375442,14.268145,-0.616859
-3.134055,1.434964,-0.353972
3.698005,17.196156,1.07866
17.430925,1.202283,-0.588757
-11.88099,4.57799,-1.505988
8.296238,19.6122,-0.688996
2.650707,14.206827,-0.910765
-7.337063,13.766102,-1.593729
-16.170214,10.074347,-0.72427
22.20183,0.834417,1.093587
14.195573,13.695259,-0.625501
-8.383468,11.03564,0.739194
17.938704,3.968535,-0.103194
-14.869536,10.242792,-0.78395
-7.31195,13.465401,1.33152
13.981731,14.224907,-1.171545
3.713463,18.693501,-1.457166
20.558561,1.138025,-0.809086
-5.27758,-1.711709,1.421706
8.887844,12.974359,0.007854
-5.315934,10.197924,-1.038244
-4.552593,13.501983,-0.86753
19.117085,7.296112,1.061205
18.515207,9.430803,-0.828941
-3.829458,15.072155,-0.813175
-6.85284,12.450522,1.402415
8.130475,20.753178,-1.339847
17.577383,2.746959,-0.824271
17.078323,6.124223,1.108891
-8.531227,13.00771,-0.752996
6.46484,19.819689,-0.425803
5.316883,1.80296,-1.56346
-20.708727,7.480762,-0.999885
9.270854,15.932911,1.126901
8.249085,16.582577,-1.605251
17.341381,10.366536,-1.633805
-4.373274,2.337918,0.225143
15.108302,11.164489,0.101711
-17.323229,11.658382,-0.829743
-3.777854,11.998627,-0.375584
16.653553,1.22386,1.066276
-2.186975,15.196856,1.446451
7.395625,2.303329,2.021931
-4.865911,15.034243,-0.805308
17.38938,3.094339,1.7305
16.35771,7.429544,-0.648887
-10.796177,-1.651392,1.259015
-4.461803,16.506098,-0.121986
-5.850963,6.37669,-1.547053
-0.061774,7.260885,-1.214497
5.969137,21.165575,1.033892
5.386533,18.577883,-1.472448
-3.699951,16.525499,0.774382
1.957786,15.529746,-0.679215
16.780539,1.557311,-0.807958
11.365415,15.176687,-0.993577
21.934822,10.776201,-0.712717
17.238148,9.711319,1.377449
15.749661,13.015163,-0.592357
11.880316,-1.101916,-0.810062
20.137882,3.376091,-0.693039
-4.50008,16.498428,0.442937
6.187324,18.332462,1.171791
22.032604,2.39111,1.100884
-2.68579,13.703881,-0.91317
3.047562,14.154706,-0.803451
0.104373,13.935058,1.401679
-8.423659,10.992188,-0.422927
17.011225,0.930283,-0.35673
-2.0164,-2.533639,1.42873
-4.576141,13.813683,-0.864104
-8.917408,2.782716,-1.628993
1.314097,17.205341,0.409561
-3.987852,11.930136,-0.955955
-1.629062,4.404801,0.985208
8.763909,-2.565656,1.008577
-4.430946,16.719341,-0.38691
-1.684213,6.270011,-1.168054
-6.996048,13.874217,-1.150026
-9.516079,8.652885,-1.760215
-4.028851,14.676427,-0.833479
-4.406547,16.461077,-1.447895
5.305058,19.431639,-0.711709
17.56596,3.097226,0.088885
17.302021,-0.096944,0.205751
-7.481602,-0.980386,2.03227
-19.474632,11.73219,-0.857946
16.092596,12.170722,0.021878
21.189951,12.708282,-0.099325
4.728861,19.599718,1.185302
-20.414799,7.697699,-0.566637
-11.961617,-1.863699,-0.870391
-3.482261,2.577893,-0.158134
14.196211,13.700949,-0.669387
-3.418644,3.775926,1.018273
3.7272,23.534912,-0.418558
6.061205,19.749813,-0.396333
-3.68268,16.605026,-0.435153
-4.520579,13.910104,-0.880366
15.169222,11.87011,-1.628496
-0.95706,14.511547,1.418301
9.569986,14.728271,1.070665
-13.885395,-0.549099,-0.816722
-3.749305,-1.351224,-0.672298
-3.097166,5.825263,-0.866684
3.718924,18.862312,-1.589062
-4.391492,11.89801,-0.017548
21.88991,8.396356,-0.508721
-4.584603,16.251976,-0.54269
15.851006,3.534475,-1.628903
23.651789,1.319175,-0.045053
20.678709,8.392811,-1.218347
-3.487967,2.57264,0.229679
15.687305,9.222867,-0.362979
9.075674,17.748556,1.136203
-4.299158,15.106149,-0.825657
-2.901793,16.431419,-0.091463
-5.076332,2.277545,0.102636
-3.768898,11.955656,-0.848528
9.027638,18.994043,-0.69465
-4.630413,15.624069,0.66105
-12.141799,5.263719,-0.137903
-15.000586,10.229191,0.182773
5.181281,0.712477,2.122344
17.427357,4.273544,-0.136706
-4.206592,13.143366,-1.570514
18.03878,1.702708,1.176234
14.175318,1.005543,-0.602804
-4.500605,13.178211,-0.93863
-5.414982,16.402712,0.174605
8.725504,20.078594,-1.384865
8.085138,20.127304,-1.221008
15.485296,6.447346,1.057936
0.142492,-1.68051,-0.651008
-4.498975,16.437569,0.045266
17.527273,-0.558814,-0.356235
-5.133973,10.178524,0.477334
-3.278632,1.460351,0.166714
-4.416023,18.118263,-0.973232
-4.705303,13.975238,-0.834765
17.198345,0.256791,-0.318628
5.659745,15.20437,-0.872808
1.603098,-0.999903,-0.639723
7.915851,20.377361,-0.752444
-4.509197,16.442749,0.477422
21.594149,9.895821,-0.87478
19.656315,1.818454,-0.874908
-3.023406,16.417675,-0.042481
-0.922824,13.423712,-0.909743
-3.80994,12.020078,-0.328706
-2.992858,11.639308,-0.443693
5.355917,2.409886,-1.118165
2.617344,-7.378867,1.338119
-15.58482,-1.976234,1.989361
16.775774,12.201223,0.289517
13.564113,13.546623,-0.612373
-4.207752,7.091061,-1.151563
9.679337,15.434616,-1.492176
16.037569,12.748471,-0.08885
-10.345915,1.825363,1.033914
-19.857508,7.025768,1.024569
2.265022,2.067502,0.174625
-7.233053,-1.672796,-0.410119
5.261802,1.70221,1.961832
14.300541,19.674633,1.156425
11.418243,-2.533747,1.191335
-19.168295,5.590191,1.596387
6.278879,17.323299,1.100826
18.09012,5.635784,0.139118
-2.939444,8.260803,-1.174267
15.018365,12.213933,-0.476641
3.364399,19.034201,-0.582408
-5.182043,10.174143,0.440616
-4.383996,10.317399,0.077665
-4.257602,16.459705,-0.522957
-4.542702,14.914889,-0.847179
-4.022061,13.968625,-0.172349
12.268433,2.500001,-0.136638
-11.566265,-2.026675,-0.953181
-12.740034,-1.961623,-1.617939
-23.824451,1.110887,1.159855
-16.381517,10.26549,-0.868067
14.791593,15.803779,1.162018
-8.094723,12.845833,-1.143954
-20.599232,10.077658,-1.265183
-5.403057,10.138894,0.490804
-4.526709,1.450736,0.501556
-1.410697,13.899709,1.451436
-3.907684,13.179629,1.38352
1.012999,17.062828,-0.043339
6.952892,17.603081,1.96919
3.767438,12.472818,-0.312452
11.808666,13.497932,-1.07339
3.331501,15.24306,-0.880776
2.748538,3.218863,-1.187092
4.288218,2.525339,1.58213
21.911337,1.273462,-0.851253
19.110073,5.757948,0.291197
-8.380364,0.331419,-0.658479
7.033255,16.403034,-0.693648
4.177854,22.377632,1.414719
-14.673582,12.999262,-1.408383
21.094599,11.233781,1.04436
16.693163,7.466314,-0.856261
-4.900023,13.4122,1.404372
2.111721,14.497237,-0.851893
6.176566,1.962144,2.005795
8.914066,19.188835,1.534505
-6.224233,12.962921,1.425498
-3.502672,13.042193,-1.63802
-2.194084,14.096322,-0.860619
21.262781,10.050637,-0.868672
-19.495901,10.994333,1.839335
8.258957,18.614485,-1.134071
23.235193,12.106415,0.345726
-3.870513,13.01161,-1.56879
-11.701745,10.588024,2.064648
-4.810877,13.528818,-1.575896
0.662881,-5.093786,-0.818711
-2.269415,13.250094,-0.884484
1.696422,14.755628,-0.780503
8.241569,18.720881,-1.035606
-11.311919,12.34113,1.017366
-4.351028,15.14575,-0.828761
1.850273,14.656532,-0.850814
-20.076778,10.488109,2.140326
14.197782,0.250627,-0.691418
-5.988154,10.245097,0.200217
-20.41186,7.633641,1.413797
9.220131,15.389706,-0.486116
-2.046743,14.116772,-0.86866
-19.713202,0.376934,-1.326678
-4.181472,14.696896,-0.409692
-9.476899,17.513039,-1.186065
-12.150813,8.389492,-1.507986
-4.003894,15.581758,-1.077905
-0.557547,-1.334841,-0.433875
21.890114,1.537027,-0.626431
5.595798,1.686528,-1.4914
-4.756812,-0.286921,1.431158
-16.641958,-0.222589,-0.785695
-11.864975,2.055583,-0.049431
7.843388,0.613171,2.090914
-5.282862,2.036186,-1.600832
-16.845522,11.563875,1.223562
-12.987115,-3.514544,-1.448592
-2.324955,-1.888829,-0.809288
12.567203,13.455945,-0.007742
-15.236683,-1.721011,1.086177
1.717017,14.009597,-0.630695
6.723905,2.620471,-0.849087
-4.156025,16.171745,1.395801
12.931329,15.364673,-0.850322
15.872848,12.676167,-0.423574
16.977345,1.951972,-1.606782
-4.418754,10.298162,-0.043114
8.965083,0.318315,1.919404
8.402085,18.683527,-0.703591
-0.881603,5.031194,-1.169203
4.81437,23.524055,-0.234903
14.219791,0.920972,-0.676555
-6.420528,14.141718,1.460736
0.528114,-2.55146,-1.100308
-9.058642,3.860114,-1.620065
18.054451,5.596389,-0.994285
-1.361755,7.376102,0.941881
11.94949,13.767916,1.557753
-8.733534,-1.293881,-1.634835
5.480014,17.097458,-0.702177
-15.214906,-3.29821,-0.801401
5.583709,2.081362,0.342937
-4.124051,1.356017,0.503643
21.179028,12.705292,-0.752237
-15.790976,-3.194109,-0.879833
2.3453,-0.987221,-0.967258
-3.670635,15.140963,-0.864452
-3.569684,16.860619,-0.889948
-14.251228,12.448404,-1.22917
-1.027322,8.006541,1.028977
-3.483749,2.606282,0.454998
-5.402405,16.353262,0.074231
-4.08428,11.945208,-0.458362
4.206153,-2.508072,1.576465
-3.781016,11.998207,-1.44813
5.00999,14.746494,1.253837
8.289448,1.94597,1.151925
6.368735,17.983301,1.402903
-3.715413,2.50353,0.432412
9.438892,15.247493,-0.000247
9.420728,17.438898,-0.577965
8.138492,17.888815,-1.040588
16.104561,12.598544,-0.265377
-5.29639,1.825378,0.24859
-4.678504,14.825224,-0.781676
-4.12594,15.079854,-0.816403
-2.347721,1.554844,0.126622
-1.310384,13.232286,-0.846208
23.056564,10.047268,0.562312
-7.539995,13.906841,1.333192
-4.143434,11.953417,0.084584
7.530371,1.367323,-0.567803
-3.391758,16.775188,-0.344643
-7.217753,11.167852,0.453755
20.570877,1.409846,-1.268836
-4.175459,2.363631,0.039487
-4.426909,15.054543,-0.796234
-6.172879,10.169103,0.211974
3.44535,14.449531,1.341084
-3.646574,12.73858,0.05616
17.263006,4.257966,-0.356204
21.329472,12.729009,0.465468
-0.786142,14.227427,-1.233018
23.069918,0.958689,-0.409867
16.137182,8.128803,1.238114
-5.724243,13.488111,1.45737
17.280514,11.981936,-0.934286
14.729522,0.340789,-1.326624
-23.088528,4.201137,2.017687
-14.456503,-2.239822,-1.25816
6.292304,17.371464,1.052166
-12.044547,8.455195,-0.717886
-20.698875,4.671986,-1.173617
11.779039,13.359894,-0.354028
6.532393,19.806484,-0.71584
23.233963,12.254586,1.087563
4.069444,15.101192,-0.859085
-2.204864,-0.507049,1.392322
-1.766089,12.764166,-0.47153
17.078411,1.105295,-0.707308
-2.335481,-1.479774,-1.445318
-0.097988,-2.332889,-0.603746
-3.900785,11.9992,-0.03847
-3.79141,11.971415,-0.837672
-4.933497,13.370707,-0.6184
19.152494,8.387696,1.162506
6.028611,20.463343,-0.694677
-1.897548,12.983068,-0.9484
15.847252,-0.363679,-0.73271
6.664316,20.424219,-0.728843
-11.831251,-3.088526,1.914731
-4.931831,11.179179,-0.568853
-4.534625,11.849379,0.067212
-6.780328,11.547462,1.422855
2.528709,14.320939,-0.912572
-9.609607,10.878222,-0.231138
19.439882,11.734603,-0.953339
-5.388402,16.324181,-0.778719
8.373707,16.247326,-1.620808
9.152258,17.023922,1.20514
1.658418,-1.403076,-1.391176
-4.559208,14.283051,1.42483
5.600727,22.19166,-0.759044
-5.787219,14.125916,1.378488
1.092791,14.247683,-1.10448
5.548561,1.663779,-1.451736
6.295887,2.512138,0.083811
-3.46297,-0.942626,1.43513
-4.785803,13.479093,-1.599938
-4.35788,14.143106,-0.832591
19.182537,11.422545,-0.394258
-4.654935,9.706239,1.046203
3.546578,16.281908,-0.757534
17.529539,3.053555,0.013595
21.766968,8.945672,-0.873384
-4.087981,13.970317,-0.76334
4.958673,18.80599,1.563027
-16.186306,10.702963,-1.22352
-4.93214,10.942797,-0.37123
-2.595138,6.93898,0.988832
-9.165081,14.795057,-1.414885
9.503847,15.061625,1.043526
7.181165,15.50254,-0.70016
3.646579,17.466803,-1.508035
-1.772166,14.251196,-0.803556
7.703832,-1.008119,-0.974568
3.087237,-4.111034,1.434443
-1.585257,-0.364298,-0.873298
12.382895,13.573607,-0.964103
-5.077608,2.268988,0.226897
-8.687802,12.809978,-1.038263
6.905814,16.348244,-0.695981
4.8844,21.246717,-0.962261
-18.740452,1.461924,-1.632419
8.301419,1.562268,2.354918
6.541278,21.319725,-0.717101
-4.193859,13.887521,-0.875013
10.367599,14.88978,-1.644495
-20.391186,9.963614,-0.968126
-4.510571,16.442337,0.195349
-17.612635,-0.208843,0.84786
-4.087168,13.583813,-0.794465
22.023415,10.78315,-0.514123
17.769094,1.552693,1.159629
-4.686678,13.690799,-0.788747
-19.101702,0.21232,1.410419
2.687613,0.432078,1.454622
-16.906067,11.560668,1.117303
-6.582958,16.224136,-1.634478
18.554075,7.306807,1.329084
-14.358736,12.889337,-0.512298
9.473468,17.155546,1.182912
-12.027042,6.7602,-1.101475
-4.305186,12.94788,-0.879227
-3.530766,14.135683,-0.789074
-3.973582,3.315107,1.063268
4.96094,20.719227,-0.815504
-4.990964,14.792681,-0.87637
-5.524586,10.65711,0.175827
11.211237,0.602697,1.072861
2.43909,3.786406,1.008286
17.970078,12.200682,1.47619
19.93129,8.774275,-0.595495
22.83844,1.241154,-0.341166
6.904813,15.483601,-1.390097
22.582359,2.102817,1.424183
-3.781347,14.963458,-0.776601
-15.460414,-4.110653,-0.838124
-11.755758,3.006876,-1.115004
-9.502846,7.839434,-1.634082
-9.102702,10.964664,0.254287
19.195297,1.614214,1.061134
4.827223,23.602261,-0.071074
-14.239861,12.390056,-0.707815
-4.403421,16.462914,0.708394
-12.613144,10.772924,1.918209
-8.744102,13.037313,-0.738465
3.785995,20.301102,0.559399
-4.326472,14.058508,-0.763316
-9.071628,10.935372,-0.250522
-19.626051,0.889106,0.094528
16.156796,12.070359,-0.089994
-18.663315,7.685433,-0.215787
21.638786,9.632483,1.419747
19.272882,11.573883,-0.788267
4.53082,12.597445,0.054585
14.988456,15.230996,1.034343
20.059698,8.909089,-0.605546
-2.398135,13.655693,-0.913186
12.118238,15.225741,-0.777709
-14.238257,-2.211627,-0.115505
-4.563844,14.382153,-0.858609
19.830036,5.819359,-0.134296
-1.710653,14.483582,-0.760558
-6.371961,10.973386,0.535234
9.332335,15.232998,1.097779
4.149967,12.535545,0.091261
14.219688,13.706262,-0.75845
19.782171,0.177485,-0.425126
-4.365769,12.817734,-0.259649
-9.746499,10.910008,-0.650158
-11.625488,4.030958,-1.438243
17.030094,6.341455,0.898764
-15.594998,-2.227879,1.939688
-19.706305,10.169436,1.066179
-9.122763,10.941512,-0.500403
18.695797,5.730611,0.895813
-4.90235,9.665383,1.026465
4.745524,19.816227,1.369017
2.06076,-1.30979,-0.652792
-2.724655,14.654726,-0.854474
8.975766,13.034458,-0.066164
-2.347219,13.804879,-0.904692
-0.654737,4.782351,-1.206705
-13.652298,10.383024,-0.67105
-11.531599,1.556581,0.568651
1.607745,12.276966,-1.343057
6.496561,21.191181,-0.70325
5.0406,19.766125,-1.070423
-3.47836,2.603289,-0.715104
-11.012789,-1.73375,1.223824
-14.2778,13.326227,-0.750355
21.629791,10.854095,-0.989236
21.506863,10.93902,1.410397
2.015288,-1.263465,-0.670377
-3.167884,16.419178,-0.412828
19.757998,6.628706,1.695816
4.262169,13.813022,1.017538
-4.109719,11.415224,-1.563388
3.018272,-0.693686,1.546283
-1.847187,14.26011,-0.861756
-1.177228,16.794729,-0.110916
14.564711,-0.48944,-1.623759
15.996758,12.218557,-0.139265
9.388419,16.995108,-0.525418
19.013939,9.765875,1.172677
-6.833084,11.628834,1.478059
-1.154692,16.893578,0.070968
5.515951,12.610704,0.758088
-12.872542,10.487483,-0.330769
2.917825,17.288094,-0.356101
6.564332,17.284948,2.120722
-11.624374,2.677186,-0.052339
14.660068,15.865664,-1.385383
14.197054,14.516628,-1.163346
10.295784,0.521229,-0.681518
19.221542,2.768713,1.052567
-4.482829,13.48155,-0.334664
-3.789733,17.728102,1.399347
-9.454475,-1.488093,-0.760292
17.676081,2.757619,-0.830924
-20.691454,11.461548,-0.882709
18.125584,0.319074,1.39405
-1.447131,-2.712188,1.471077
23.53857,9.872016,0.988505
-19.749659,10.16855,1.117496
22.035107,11.858917,-1.633695
5.459134,23.753572,-0.152496
1.025047,-2.311176,1.424276
-17.39467,9.99722,-0.09001
8.38073,18.580788,-0.717315
13.22657,-0.579258,-0.678897
5.481128,15.2752,-1.575155
-18.187626,13.917817,-0.879495
15.603891,14.146037,0.269043
-13.479545,10.399986,-0.357321
16.334518,12.135299,-0.375505
-6.881528,12.635561,1.397286
-17.320179,-4.043923,-1.620928
15.656493,1.011312,1.819848
5.519204,16.66864,-0.486352
-18.755411,8.005281,1.922241
3.992188,15.260811,-1.586339
19.500267,12.505568,-0.562344
-4.512263,16.443502,-0.237266
-9.607568,10.883898,0.112048
-8.647069,2.85341,-0.902732
-14.820194,-3.073729,-0.871914
-4.361604,10.268343,-0.089779
-12.078488,6.398708,-1.462282
-2.875556,16.653212,-0.108939
11.933935,-1.454634,-0.773587
3.044645,19.563948,-0.41317
-3.593299,15.401574,-1.624019
19.23922,1.587902,-0.84998
-10.424901,1.63877,1.04587
8.528826,15.803642,-1.279695
5.073334,20.163742,-0.906951
1.501626,0.155052,-1.190642
-2.882826,7.929852,0.997976
3.360677,15.067898,1.773564
-5.604436,13.003569,1.438696
-14.690563,-1.624392,2.159736
-4.339468,16.47249,-0.203412
6.413356,14.551075,-0.703464
11.991381,13.420827,-0.343191
-5.223969,1.232774,-0.701186
-3.488745,2.571014,0.393858
5.661481,15.209676,-1.212148
-8.803099,12.886278,-0.879752
-4.171074,2.348282,-0.095206
-4.377398,2.311739,0.00129
-13.248387,-4.217252,-1.561024
-3.780315,2.582795,0.481454
-0.776399,7.767667,-1.175681
-3.741686,13.834013,-0.852
9.175869,17.330597,-0.549165
-17.302227,10.439727,-1.598858
21.117144,3.404608,-0.042347
-19.514149,-0.323043,-1.54095
-3.961004,14.418885,-0.582984
-4.629298,14.525664,-0.777342
0.366174,-1.977106,-1.503066
5.96161,20.955772,-0.183796
6.141869,20.764269,1.003271
15.866977,2.924923,0.21282
15.310076,11.252393,-0.951915
-9.657381,10.881773,0.015345
-13.464464,10.385926,1.394362
5.04886,19.751665,-1.343376
13.575934,2.114629,1.064347
-15.040304,-2.386857,-0.879257
-19.589514,4.611156,1.032773
1.604102,-1.223764,-0.708745
2.31295,12.214153,-0.852455
-3.964536,11.984744,-0.477108
-4.789434,2.381401,0.31396
15.193199,8.993967,-0.399715
5.305631,21.924587,-0.887261
8.982597,14.998159,-0.524555
-15.61777,-3.479648,-0.83802
20.596869,12.658342,1.507513
21.793516,8.845001,-0.746122
16.197697,1.856993,-1.667053
3.238625,22.731394,-0.81273
-14.722234,13.250626,-1.608071
-12.390016,-3.259049,-0.871444
-8.371231,11.047708,-0.286157
-13.173507,13.073865,2.064266
18.709238,10.955077,-1.003267
-3.676799,13.158932,-1.329665
-2.593909,14.879189,-0.835887
-18.581451,0.240301,-1.622547
-11.96397,4.586647,-1.287346
-8.297775,13.301097,-0.810646
-5.98527,10.247809,0.183213
-19.837961,3.694444,-1.78608
-3.925062,13.873854,1.376267
20.607796,1.31951,-0.832055
-8.770121,12.77484,-0.954069
5.919122,20.564112,1.113839
-17.246845,-1.005106,-0.806232
8.418014,19.177967,2.130002
-2.746395,16.656027,0.633284
16.3018,1.447267,-0.794089
-4.488545,12.996162,-0.731651
-1.050237,-0.63814,0.088685
-17.589815,-0.224786,2.017679
10.238403,-0.122036,-1.144936
-4.387879,10.630172,-0.631348
4.865595,19.130287,-0.856806
-19.732489,1.546326,0.256258
-4.444229,11.420272,-1.640061
-11.345874,11.865088,2.364613
-4.500599,16.468822,0.3533
-5.053745,11.029915,-0.125824
20.057173,8.823462,-0.714581
22.98098,-1.938074,0.126086
2.772839,-1.162598,-0.705479
-5.038609,11.356557,0.499059
-2.329555,-4.417927,-0.926681
